2250
1.790000 -1.598735 -1.267141
1.790000 -1.544270 -1.332978
1.790000 -1.487096 -1.396476
1.790000 -1.427313 -1.457524
1.790000 -1.365026 -1.516015
1.790000 -1.300345 -1.571847
1.790000 -1.233382 -1.624921
1.790000 -1.164256 -1.675144
1.790000 -1.093087 -1.722429
1.790000 -1.020000 -1.766692
1.790000 -0.945124 -1.807855
1.790000 -0.868590 -1.845847
1.790000 -0.790532 -1.880601
1.790000 -0.711087 -1.912055
1.790000 -0.630395 -1.940155
1.790000 -0.548596 -1.964852
1.790000 -0.465836 -1.986101
1.790000 -0.382258 -2.003866
1.790000 -0.298009 -2.018116
1.790000 -0.213238 -2.028825
1.790000 -0.128093 -2.035975
1.790000 -0.042723 -2.039553
1.790000 0.042723 -2.039553
1.790000 0.128093 -2.035975
1.790000 0.213238 -2.028825
1.790000 0.298009 -2.018116
1.790000 0.382258 -2.003866
1.790000 0.465836 -1.986101
1.790000 0.548596 -1.964852
1.790000 0.630395 -1.940155
1.790000 0.711087 -1.912055
1.790000 0.790532 -1.880601
1.790000 0.868590 -1.845847
1.790000 0.945124 -1.807855
1.790000 1.020000 -1.766692
1.790000 1.093087 -1.722429
1.790000 1.164256 -1.675144
1.790000 1.233382 -1.624921
1.790000 1.300345 -1.571847
1.790000 1.365026 -1.516015
1.790000 1.427313 -1.457524
1.790000 1.487096 -1.396476
1.790000 1.544270 -1.332978
1.790000 1.598735 -1.267141
1.790000 1.650395 -1.199082
1.790000 1.699159 -1.128919
1.790000 1.744943 -1.056775
1.790000 1.787666 -0.982777
1.790000 1.827252 -0.907056
1.790000 1.863633 -0.829743
1.790000 1.896744 -0.750974
1.790000 1.926528 -0.670888
1.790000 1.952932 -0.589625
1.790000 1.975910 -0.507327
1.790000 1.995421 -0.424140
1.790000 2.011432 -0.340208
1.790000 2.023914 -0.255680
1.790000 2.032845 -0.170703
1.790000 2.038211 -0.085426
2.620000 2.800000 0.000000
2.620000 2.797544 0.117252
2.620000 2.790180 0.234298
2.620000 2.777921 0.350933
2.620000 2.760789 0.466952
2.620000 2.738813 0.582153
2.620000 2.712033 0.696332
2.620000 2.680495 0.809289
2.620000 2.644254 0.920827
2.620000 2.603374 1.030749
2.620000 2.557927 1.138863
2.620000 2.507993 1.244979
2.620000 2.453659 1.348910
2.620000 2.395020 1.450476
2.620000 2.332179 1.549496
2.620000 2.265248 1.645799
2.620000 2.194342 1.739214
2.620000 2.119586 1.829578
2.620000 2.041112 1.916732
2.620000 1.959057 2.000524
2.620000 1.873566 2.080806
2.620000 1.784787 2.157437
2.620000 1.692878 2.230284
2.620000 1.597998 2.299218
2.620000 1.500315 2.364118
2.620000 1.400000 2.424871
2.620000 1.297229 2.481370
2.620000 1.192182 2.533516
2.620000 1.085044 2.581217
2.620000 0.976002 2.624390
2.620000 0.865248 2.662958
2.620000 0.752975 2.696855
2.620000 0.639382 2.726021
2.620000 0.524668 2.750404
2.620000 0.409032 2.769963
2.620000 0.292680 2.784661
2.620000 0.175813 2.794475
2.620000 0.058639 2.799386
2.620000 -0.058639 2.799386
2.620000 -0.175813 2.794475
2.620000 -0.292680 2.784661
2.620000 -0.409032 2.769963
2.620000 -0.524668 2.750404
2.620000 -0.639382 2.726021
2.620000 -0.752975 2.696855
2.620000 -0.865248 2.662958
2.620000 -0.976002 2.624390
2.620000 -1.085044 2.581217
2.620000 -1.192182 2.533516
2.620000 -1.297229 2.481370
2.620000 -1.400000 2.424871
2.620000 -1.500315 2.364118
2.620000 -1.597998 2.299218
2.620000 -1.692878 2.230284
2.620000 -1.784787 2.157437
2.620000 -1.873566 2.080806
2.620000 -1.959057 2.000524
2.620000 -2.041112 1.916732
2.620000 -2.119586 1.829578
2.620000 -2.194342 1.739214
2.620000 -2.265248 1.645799
2.620000 -2.332179 1.549496
2.620000 -2.395020 1.450476
2.620000 -2.453659 1.348910
2.620000 -2.507993 1.244979
2.620000 -2.557927 1.138863
2.620000 -2.603374 1.030749
2.620000 -2.644254 0.920827
2.620000 -2.680495 0.809289
2.620000 -2.712033 0.696332
2.620000 -2.738813 0.582153
2.620000 -2.760789 0.466952
2.620000 -2.777921 0.350933
2.620000 -2.790180 0.234298
2.620000 -2.797544 0.117252
2.620000 -2.800000 0.000000
2.620000 -2.797544 -0.117252
2.620000 -2.790180 -0.234298
2.620000 -2.777921 -0.350933
2.620000 -2.760789 -0.466952
2.620000 -2.738813 -0.582153
2.620000 -2.712033 -0.696332
2.620000 -2.680495 -0.809289
2.620000 -2.644254 -0.920827
2.620000 -2.603374 -1.030749
2.620000 -2.557927 -1.138863
2.620000 -2.507993 -1.244979
2.620000 -2.453659 -1.348910
2.620000 -2.395020 -1.450476
2.620000 -2.332179 -1.549496
2.620000 -2.265248 -1.645799
2.620000 -2.194342 -1.739214
2.620000 -2.119586 -1.829578
2.620000 -2.041112 -1.916732
2.620000 -1.959057 -2.000524
2.620000 -1.873566 -2.080806
2.620000 -1.784787 -2.157437
2.620000 -1.692878 -2.230284
2.620000 -1.597998 -2.299218
2.620000 -1.500315 -2.364118
2.620000 -1.400000 -2.424871
2.620000 -1.297229 -2.481370
2.620000 -1.192182 -2.533516
2.620000 -1.085044 -2.581217
2.620000 -0.976002 -2.624390
2.620000 -0.865248 -2.662958
2.620000 -0.752975 -2.696855
2.620000 -0.639382 -2.726021
2.620000 -0.524668 -2.750404
2.620000 -0.409032 -2.769963
2.620000 -0.292680 -2.784661
2.620000 -0.175813 -2.794475
2.620000 -0.058639 -2.799386
2.620000 0.058639 -2.799386
2.620000 0.175813 -2.794475
2.620000 0.292680 -2.784661
2.620000 0.409032 -2.769963
2.620000 0.524668 -2.750404
2.620000 0.639382 -2.726021
2.620000 0.752975 -2.696855
2.620000 0.865248 -2.662958
2.620000 0.976002 -2.624390
2.620000 1.085044 -2.581217
2.620000 1.192182 -2.533516
2.620000 1.297229 -2.481370
2.620000 1.400000 -2.424871
2.620000 1.500315 -2.364118
2.620000 1.597998 -2.299218
2.620000 1.692878 -2.230284
2.620000 1.784787 -2.157437
2.620000 1.873566 -2.080806
2.620000 1.959057 -2.000524
2.620000 2.041112 -1.916732
2.620000 2.119586 -1.829578
2.620000 2.194342 -1.739214
2.620000 2.265248 -1.645799
2.620000 2.332179 -1.549496
2.620000 2.395020 -1.450476
2.620000 2.453659 -1.348910
2.620000 2.507993 -1.244979
2.620000 2.557927 -1.138863
2.620000 2.603374 -1.030749
2.620000 2.644254 -0.920827
2.620000 2.680495 -0.809289
2.620000 2.712033 -0.696332
2.620000 2.738813 -0.582153
2.620000 2.760789 -0.466952
2.620000 2.777921 -0.350933
2.620000 2.790180 -0.234298
2.620000 2.797544 -0.117252
3.860000 2.980000 0.000000
3.860000 2.977386 0.124789
3.860000 2.969549 0.249360
3.860000 2.956502 0.373493
3.860000 2.938268 0.496971
3.860000 2.914880 0.619577
3.860000 2.886378 0.741096
3.860000 2.852812 0.861315
3.860000 2.814242 0.980023
3.860000 2.770734 1.097011
3.860000 2.722365 1.212075
3.860000 2.669221 1.325013
3.860000 2.611394 1.435626
3.860000 2.548985 1.543720
3.860000 2.482105 1.649107
3.860000 2.410871 1.751600
3.860000 2.335407 1.851020
3.860000 2.255845 1.947193
3.860000 2.172327 2.039950
3.860000 2.084997 2.129129
3.860000 1.994009 2.214572
3.860000 1.899523 2.296129
3.860000 1.801705 2.373659
3.860000 1.700726 2.447025
3.860000 1.596764 2.516097
3.860000 1.490000 2.580756
3.860000 1.380622 2.640887
3.860000 1.268822 2.696385
3.860000 1.154796 2.747152
3.860000 1.038745 2.793100
3.860000 0.920871 2.834148
3.860000 0.801381 2.870224
3.860000 0.680486 2.901265
3.860000 0.558396 2.927216
3.860000 0.435327 2.948032
3.860000 0.311495 2.963675
3.860000 0.187116 2.974120
3.860000 0.062408 2.979346
3.860000 -0.062408 2.979346
3.860000 -0.187116 2.974120
3.860000 -0.311495 2.963675
3.860000 -0.435327 2.948032
3.860000 -0.558396 2.927216
3.860000 -0.680486 2.901265
3.860000 -0.801381 2.870224
3.860000 -0.920871 2.834148
3.860000 -1.038745 2.793100
3.860000 -1.154796 2.747152
3.860000 -1.268822 2.696385
3.860000 -1.380622 2.640887
3.860000 -1.490000 2.580756
3.860000 -1.596764 2.516097
3.860000 -1.700726 2.447025
3.860000 -1.801705 2.373659
3.860000 -1.899523 2.296129
3.860000 -1.994009 2.214572
3.860000 -2.084997 2.129129
3.860000 -2.172327 2.039950
3.860000 -2.255845 1.947193
3.860000 -2.335407 1.851020
3.860000 -2.410871 1.751600
3.860000 -2.482105 1.649107
3.860000 -2.548985 1.543720
3.860000 -2.611394 1.435626
3.860000 -2.669221 1.325013
3.860000 -2.722365 1.212075
3.860000 -2.770734 1.097011
3.860000 -2.814242 0.980023
3.860000 -2.852812 0.861315
3.860000 -2.886378 0.741096
3.860000 -2.914880 0.619577
3.860000 -2.938268 0.496971
3.860000 -2.956502 0.373493
3.860000 -2.969549 0.249360
3.860000 -2.977386 0.124789
3.860000 -2.980000 0.000000
3.860000 -2.977386 -0.124789
3.860000 -2.969549 -0.249360
3.860000 -2.956502 -0.373493
3.860000 -2.938268 -0.496971
3.860000 -2.914880 -0.619577
3.860000 -2.886378 -0.741096
3.860000 -2.852812 -0.861315
3.860000 -2.814242 -0.980023
3.860000 -2.770734 -1.097011
3.860000 -2.722365 -1.212075
3.860000 -2.669221 -1.325013
3.860000 -2.611394 -1.435626
3.860000 -2.548985 -1.543720
3.860000 -2.482105 -1.649107
3.860000 -2.410871 -1.751600
3.860000 -2.335407 -1.851020
3.860000 -2.255845 -1.947193
3.860000 -2.172327 -2.039950
3.860000 -2.084997 -2.129129
3.860000 -1.994009 -2.214572
3.860000 -1.899523 -2.296129
3.860000 -1.801705 -2.373659
3.860000 -1.700726 -2.447025
3.860000 -1.596764 -2.516097
3.860000 -1.490000 -2.580756
3.860000 -1.380622 -2.640887
3.860000 -1.268822 -2.696385
3.860000 -1.154796 -2.747152
3.860000 -1.038745 -2.793100
3.860000 -0.920871 -2.834148
3.860000 -0.801381 -2.870224
3.860000 -0.680486 -2.901265
3.860000 -0.558396 -2.927216
3.860000 -0.435327 -2.948032
3.860000 -0.311495 -2.963675
3.860000 -0.187116 -2.974120
3.860000 -0.062408 -2.979346
3.860000 0.062408 -2.979346
3.860000 0.187116 -2.974120
3.860000 0.311495 -2.963675
3.860000 0.435327 -2.948032
3.860000 0.558396 -2.927216
3.860000 0.680486 -2.901265
3.860000 0.801381 -2.870224
3.860000 0.920871 -2.834148
3.860000 1.038745 -2.793100
3.860000 1.154796 -2.747152
3.860000 1.268822 -2.696385
3.860000 1.380622 -2.640887
3.860000 1.490000 -2.580756
3.860000 1.596764 -2.516097
3.860000 1.700726 -2.447025
3.860000 1.801705 -2.373659
3.860000 1.899523 -2.296129
3.860000 1.994009 -2.214572
3.860000 2.084997 -2.129129
3.860000 2.172327 -2.039950
3.860000 2.255845 -1.947193
3.860000 2.335407 -1.851020
3.860000 2.410871 -1.751600
3.860000 2.482105 -1.649107
3.860000 2.548985 -1.543720
3.860000 2.611394 -1.435626
3.860000 2.669221 -1.325013
3.860000 2.722365 -1.212075
3.860000 2.770734 -1.097011
3.860000 2.814242 -0.980023
3.860000 2.852812 -0.861315
3.860000 2.886378 -0.741096
3.860000 2.914880 -0.619577
3.860000 2.938268 -0.496971
3.860000 2.956502 -0.373493
3.860000 2.969549 -0.249360
3.860000 2.977386 -0.124789
4.910000 2.720000 0.000000
4.910000 2.717614 0.113902
4.910000 2.710461 0.227604
4.910000 2.698552 0.340906
4.910000 2.681909 0.453611
4.910000 2.660561 0.565520
4.910000 2.634546 0.676436
4.910000 2.603909 0.786166
4.910000 2.568704 0.894517
4.910000 2.528992 1.001299
4.910000 2.484844 1.106324
4.910000 2.436336 1.209408
4.910000 2.383554 1.310370
4.910000 2.326591 1.409033
4.910000 2.265546 1.505225
4.910000 2.200526 1.598776
4.910000 2.131646 1.689522
4.910000 2.059027 1.777304
4.910000 1.982795 1.861968
4.910000 1.903084 1.943366
4.910000 1.820035 2.021354
4.910000 1.733793 2.095796
4.910000 1.644510 2.166561
4.910000 1.552341 2.233526
4.910000 1.457449 2.296572
4.910000 1.360000 2.355589
4.910000 1.260165 2.410474
4.910000 1.158120 2.461130
4.910000 1.054042 2.507468
4.910000 0.948116 2.549407
4.910000 0.840526 2.586874
4.910000 0.731462 2.619802
4.910000 0.621114 2.648135
4.910000 0.509677 2.671821
4.910000 0.397346 2.690821
4.910000 0.284317 2.705100
4.910000 0.170790 2.714633
4.910000 0.056963 2.719403
4.910000 -0.056963 2.719403
4.910000 -0.170790 2.714633
4.910000 -0.284317 2.705100
4.910000 -0.397346 2.690821
4.910000 -0.509677 2.671821
4.910000 -0.621114 2.648135
4.910000 -0.731462 2.619802
4.910000 -0.840526 2.586874
4.910000 -0.948116 2.549407
4.910000 -1.054042 2.507468
4.910000 -1.158120 2.461130
4.910000 -1.260165 2.410474
4.910000 -1.360000 2.355589
4.910000 -1.457449 2.296572
4.910000 -1.552341 2.233526
4.910000 -1.644510 2.166561
4.910000 -1.733793 2.095796
4.910000 -1.820035 2.021354
4.910000 -1.903084 1.943366
4.910000 -1.982795 1.861968
4.910000 -2.059027 1.777304
4.910000 -2.131646 1.689522
4.910000 -2.200526 1.598776
4.910000 -2.265546 1.505225
4.910000 -2.326591 1.409033
4.910000 -2.383554 1.310370
4.910000 -2.436336 1.209408
4.910000 -2.484844 1.106324
4.910000 -2.528992 1.001299
4.910000 -2.568704 0.894517
4.910000 -2.603909 0.786166
4.910000 -2.634546 0.676436
4.910000 -2.660561 0.565520
4.910000 -2.681909 0.453611
4.910000 -2.698552 0.340906
4.910000 -2.710461 0.227604
4.910000 -2.717614 0.113902
4.910000 -2.720000 0.000000
4.910000 -2.717614 -0.113902
4.910000 -2.710461 -0.227604
4.910000 -2.698552 -0.340906
4.910000 -2.681909 -0.453611
4.910000 -2.660561 -0.565520
4.910000 -2.634546 -0.676436
4.910000 -2.603909 -0.786166
4.910000 -2.568704 -0.894517
4.910000 -2.528992 -1.001299
4.910000 -2.484844 -1.106324
4.910000 -2.436336 -1.209408
4.910000 -2.383554 -1.310370
4.910000 -2.326591 -1.409033
4.910000 -2.265546 -1.505225
4.910000 -2.200526 -1.598776
4.910000 -2.131646 -1.689522
4.910000 -2.059027 -1.777304
4.910000 -1.982795 -1.861968
4.910000 -1.903084 -1.943366
4.910000 -1.820035 -2.021354
4.910000 -1.733793 -2.095796
4.910000 -1.644510 -2.166561
4.910000 -1.552341 -2.233526
4.910000 -1.457449 -2.296572
4.910000 -1.360000 -2.355589
4.910000 -1.260165 -2.410474
4.910000 -1.158120 -2.461130
4.910000 -1.054042 -2.507468
4.910000 -0.948116 -2.549407
4.910000 -0.840526 -2.586874
4.910000 -0.731462 -2.619802
4.910000 -0.621114 -2.648135
4.910000 -0.509677 -2.671821
4.910000 -0.397346 -2.690821
4.910000 -0.284317 -2.705100
4.910000 -0.170790 -2.714633
4.910000 -0.056963 -2.719403
4.910000 0.056963 -2.719403
4.910000 0.170790 -2.714633
4.910000 0.284317 -2.705100
4.910000 0.397346 -2.690821
4.910000 0.509677 -2.671821
4.910000 0.621114 -2.648135
4.910000 0.731462 -2.619802
4.910000 0.840526 -2.586874
4.910000 0.948116 -2.549407
4.910000 1.054042 -2.507468
4.910000 1.158120 -2.461130
4.910000 1.260165 -2.410474
4.910000 1.360000 -2.355589
4.910000 1.457449 -2.296572
4.910000 1.552341 -2.233526
4.910000 1.644510 -2.166561
4.910000 1.733793 -2.095796
4.910000 1.820035 -2.021354
4.910000 1.903084 -1.943366
4.910000 1.982795 -1.861968
4.910000 2.059027 -1.777304
4.910000 2.131646 -1.689522
4.910000 2.200526 -1.598776
4.910000 2.265546 -1.505225
4.910000 2.326591 -1.409033
4.910000 2.383554 -1.310370
4.910000 2.436336 -1.209408
4.910000 2.484844 -1.106324
4.910000 2.528992 -1.001299
4.910000 2.568704 -0.894517
4.910000 2.603909 -0.786166
4.910000 2.634546 -0.676436
4.910000 2.660561 -0.565520
4.910000 2.681909 -0.453611
4.910000 2.698552 -0.340906
4.910000 2.710461 -0.227604
4.910000 2.717614 -0.113902
5.480000 2.010000 0.000000
5.480000 2.008237 0.084170
5.480000 2.002951 0.168192
5.480000 1.994151 0.251920
5.480000 1.981852 0.335205
5.480000 1.966077 0.417902
5.480000 1.946852 0.499867
5.480000 1.924212 0.580954
5.480000 1.898197 0.661022
5.480000 1.868851 0.739930
5.480000 1.836226 0.817541
5.480000 1.800381 0.893717
5.480000 1.761376 0.968325
5.480000 1.719282 1.041234
5.480000 1.674172 1.112317
5.480000 1.626124 1.181448
5.480000 1.575224 1.248507
5.480000 1.521560 1.313375
5.480000 1.465227 1.375940
5.480000 1.406323 1.436090
5.480000 1.344953 1.493721
5.480000 1.281222 1.548732
5.480000 1.215244 1.601025
5.480000 1.147134 1.650510
5.480000 1.077012 1.697099
5.480000 1.005000 1.740711
5.480000 0.931225 1.781269
5.480000 0.855816 1.818702
5.480000 0.778906 1.852945
5.480000 0.700630 1.883937
5.480000 0.621124 1.911624
5.480000 0.540529 1.935957
5.480000 0.458985 1.956894
5.480000 0.376636 1.974397
5.480000 0.293627 1.988437
5.480000 0.210102 1.998989
5.480000 0.126209 2.006034
5.480000 0.042094 2.009559
5.480000 -0.042094 2.009559
5.480000 -0.126209 2.006034
5.480000 -0.210102 1.998989
5.480000 -0.293627 1.988437
5.480000 -0.376636 1.974397
5.480000 -0.458985 1.956894
5.480000 -0.540529 1.935957
5.480000 -0.621124 1.911624
5.480000 -0.700630 1.883937
5.480000 -0.778906 1.852945
5.480000 -0.855816 1.818702
5.480000 -0.931225 1.781269
5.480000 -1.005000 1.740711
5.480000 -1.077012 1.697099
5.480000 -1.147134 1.650510
5.480000 -1.215244 1.601025
5.480000 -1.281222 1.548732
5.480000 -1.344953 1.493721
5.480000 -1.406323 1.436090
5.480000 -1.465227 1.375940
5.480000 -1.521560 1.313375
5.480000 -1.575224 1.248507
5.480000 -1.626124 1.181448
5.480000 -1.674172 1.112317
5.480000 -1.719282 1.041234
5.480000 -1.761376 0.968325
5.480000 -1.800381 0.893717
5.480000 -1.836226 0.817541
5.480000 -1.868851 0.739930
5.480000 -1.898197 0.661022
5.480000 -1.924212 0.580954
5.480000 -1.946852 0.499867
5.480000 -1.966077 0.417902
5.480000 -1.981852 0.335205
5.480000 -1.994151 0.251920
5.480000 -2.002951 0.168192
5.480000 -2.008237 0.084170
5.480000 -2.010000 0.000000
5.480000 -2.008237 -0.084170
5.480000 -2.002951 -0.168192
5.480000 -1.994151 -0.251920
5.480000 -1.981852 -0.335205
5.480000 -1.966077 -0.417902
5.480000 -1.946852 -0.499867
5.480000 -1.924212 -0.580954
5.480000 -1.898197 -0.661022
5.480000 -1.868851 -0.739930
5.480000 -1.836226 -0.817541
5.480000 -1.800381 -0.893717
5.480000 -1.761376 -0.968325
5.480000 -1.719282 -1.041234
5.480000 -1.674172 -1.112317
5.480000 -1.626124 -1.181448
5.480000 -1.575224 -1.248507
5.480000 -1.521560 -1.313375
5.480000 -1.465227 -1.375940
5.480000 -1.406323 -1.436090
5.480000 -1.344953 -1.493721
5.480000 -1.281222 -1.548732
5.480000 -1.215244 -1.601025
5.480000 -1.147134 -1.650510
5.480000 -1.077012 -1.697099
5.480000 -1.005000 -1.740711
5.480000 -0.931225 -1.781269
5.480000 -0.855816 -1.818702
5.480000 -0.778906 -1.852945
5.480000 -0.700630 -1.883937
5.480000 -0.621124 -1.911624
5.480000 -0.540529 -1.935957
5.480000 -0.458985 -1.956894
5.480000 -0.376636 -1.974397
5.480000 -0.293627 -1.988437
5.480000 -0.210102 -1.998989
5.480000 -0.126209 -2.006034
5.480000 -0.042094 -2.009559
5.480000 0.042094 -2.009559
5.480000 0.126209 -2.006034
5.480000 0.210102 -1.998989
5.480000 0.293627 -1.988437
5.480000 0.376636 -1.974397
5.480000 0.458985 -1.956894
5.480000 0.540529 -1.935957
5.480000 0.621124 -1.911624
5.480000 0.700630 -1.883937
5.480000 0.778906 -1.852945
5.480000 0.855816 -1.818702
5.480000 0.931225 -1.781269
5.480000 1.005000 -1.740711
5.480000 1.077012 -1.697099
5.480000 1.147134 -1.650510
5.480000 1.215244 -1.601025
5.480000 1.281222 -1.548732
5.480000 1.344953 -1.493721
5.480000 1.406323 -1.436090
5.480000 1.465227 -1.375940
5.480000 1.521560 -1.313375
5.480000 1.575224 -1.248507
5.480000 1.626124 -1.181448
5.480000 1.674172 -1.112317
5.480000 1.719282 -1.041234
5.480000 1.761376 -0.968325
5.480000 1.800381 -0.893717
5.480000 1.836226 -0.817541
5.480000 1.868851 -0.739930
5.480000 1.898197 -0.661022
5.480000 1.924212 -0.580954
5.480000 1.946852 -0.499867
5.480000 1.966077 -0.417902
5.480000 1.981852 -0.335205
5.480000 1.994151 -0.251920
5.480000 2.002951 -0.168192
5.480000 2.008237 -0.084170
6.000000 1.240000 0.000000
6.000000 1.238912 0.051926
6.000000 1.235651 0.103761
6.000000 1.230222 0.155413
6.000000 1.222635 0.206793
6.000000 1.212903 0.257810
6.000000 1.201043 0.308375
6.000000 1.187076 0.358399
6.000000 1.171027 0.407795
6.000000 1.152923 0.456474
6.000000 1.132796 0.504353
6.000000 1.110683 0.551348
6.000000 1.086620 0.597375
6.000000 1.060652 0.642353
6.000000 1.032822 0.686206
6.000000 1.003181 0.728854
6.000000 0.971780 0.770223
6.000000 0.938674 0.810242
6.000000 0.903921 0.848838
6.000000 0.867583 0.885946
6.000000 0.829722 0.921500
6.000000 0.790406 0.955436
6.000000 0.749703 0.987697
6.000000 0.707685 1.018225
6.000000 0.664425 1.046967
6.000000 0.620000 1.073872
6.000000 0.574487 1.098892
6.000000 0.527966 1.121986
6.000000 0.480519 1.143110
6.000000 0.432229 1.162230
6.000000 0.383181 1.179310
6.000000 0.333461 1.194322
6.000000 0.283155 1.207238
6.000000 0.232353 1.218036
6.000000 0.181143 1.226698
6.000000 0.129615 1.233207
6.000000 0.077860 1.237553
6.000000 0.025969 1.239728
6.000000 -0.025969 1.239728
6.000000 -0.077860 1.237553
6.000000 -0.129615 1.233207
6.000000 -0.181143 1.226698
6.000000 -0.232353 1.218036
6.000000 -0.283155 1.207238
6.000000 -0.333461 1.194322
6.000000 -0.383181 1.179310
6.000000 -0.432229 1.162230
6.000000 -0.480519 1.143110
6.000000 -0.527966 1.121986
6.000000 -0.574487 1.098892
6.000000 -0.620000 1.073872
6.000000 -0.664425 1.046967
6.000000 -0.707685 1.018225
6.000000 -0.749703 0.987697
6.000000 -0.790406 0.955436
6.000000 -0.829722 0.921500
6.000000 -0.867583 0.885946
6.000000 -0.903921 0.848838
6.000000 -0.938674 0.810242
6.000000 -0.971780 0.770223
6.000000 -1.003181 0.728854
6.000000 -1.032822 0.686206
6.000000 -1.060652 0.642353
6.000000 -1.086620 0.597375
6.000000 -1.110683 0.551348
6.000000 -1.132796 0.504353
6.000000 -1.152923 0.456474
6.000000 -1.171027 0.407795
6.000000 -1.187076 0.358399
6.000000 -1.201043 0.308375
6.000000 -1.212903 0.257810
6.000000 -1.222635 0.206793
6.000000 -1.230222 0.155413
6.000000 -1.235651 0.103761
6.000000 -1.238912 0.051926
6.000000 -1.240000 0.000000
6.000000 -1.238912 -0.051926
6.000000 -1.235651 -0.103761
6.000000 -1.230222 -0.155413
6.000000 -1.222635 -0.206793
6.000000 -1.212903 -0.257810
6.000000 -1.201043 -0.308375
6.000000 -1.187076 -0.358399
6.000000 -1.171027 -0.407795
6.000000 -1.152923 -0.456474
6.000000 -1.132796 -0.504353
6.000000 -1.110683 -0.551348
6.000000 -1.086620 -0.597375
6.000000 -1.060652 -0.642353
6.000000 -1.032822 -0.686206
6.000000 -1.003181 -0.728854
6.000000 -0.971780 -0.770223
6.000000 -0.938674 -0.810242
6.000000 -0.903921 -0.848838
6.000000 -0.867583 -0.885946
6.000000 -0.829722 -0.921500
6.000000 -0.790406 -0.955436
6.000000 -0.749703 -0.987697
6.000000 -0.707685 -1.018225
6.000000 -0.664425 -1.046967
6.000000 -0.620000 -1.073872
6.000000 -0.574487 -1.098892
6.000000 -0.527966 -1.121986
6.000000 -0.480519 -1.143110
6.000000 -0.432229 -1.162230
6.000000 -0.383181 -1.179310
6.000000 -0.333461 -1.194322
6.000000 -0.283155 -1.207238
6.000000 -0.232353 -1.218036
6.000000 -0.181143 -1.226698
6.000000 -0.129615 -1.233207
6.000000 -0.077860 -1.237553
6.000000 -0.025969 -1.239728
6.000000 0.025969 -1.239728
6.000000 0.077860 -1.237553
6.000000 0.129615 -1.233207
6.000000 0.181143 -1.226698
6.000000 0.232353 -1.218036
6.000000 0.283155 -1.207238
6.000000 0.333461 -1.194322
6.000000 0.383181 -1.179310
6.000000 0.432229 -1.162230
6.000000 0.480519 -1.143110
6.000000 0.527966 -1.121986
6.000000 0.574487 -1.098892
6.000000 0.620000 -1.073872
6.000000 0.664425 -1.046967
6.000000 0.707685 -1.018225
6.000000 0.749703 -0.987697
6.000000 0.790406 -0.955436
6.000000 0.829722 -0.921500
6.000000 0.867583 -0.885946
6.000000 0.903921 -0.848838
6.000000 0.938674 -0.810242
6.000000 0.971780 -0.770223
6.000000 1.003181 -0.728854
6.000000 1.032822 -0.686206
6.000000 1.060652 -0.642353
6.000000 1.086620 -0.597375
6.000000 1.110683 -0.551348
6.000000 1.132796 -0.504353
6.000000 1.152923 -0.456474
6.000000 1.171027 -0.407795
6.000000 1.187076 -0.358399
6.000000 1.201043 -0.308375
6.000000 1.212903 -0.257810
6.000000 1.222635 -0.206793
6.000000 1.230222 -0.155413
6.000000 1.235651 -0.103761
6.000000 1.238912 -0.051926
6.420000 0.810000 0.000000
6.420000 0.809289 0.033919
6.420000 0.807159 0.067779
6.420000 0.803613 0.101520
6.420000 0.798657 0.135083
6.420000 0.792300 0.168408
6.420000 0.784552 0.201439
6.420000 0.775429 0.234116
6.420000 0.764945 0.266382
6.420000 0.753119 0.298181
6.420000 0.739972 0.329457
6.420000 0.725527 0.360154
6.420000 0.709808 0.390220
6.420000 0.692845 0.419602
6.420000 0.674666 0.448247
6.420000 0.655304 0.476106
6.420000 0.634792 0.503130
6.420000 0.613166 0.529271
6.420000 0.590465 0.554483
6.420000 0.566727 0.578723
6.420000 0.541996 0.601947
6.420000 0.516313 0.624116
6.420000 0.489725 0.645189
6.420000 0.462278 0.665131
6.420000 0.434020 0.683906
6.420000 0.405000 0.701481
6.420000 0.375270 0.717825
6.420000 0.344881 0.732910
6.420000 0.313888 0.746709
6.420000 0.282343 0.759198
6.420000 0.250304 0.770356
6.420000 0.217825 0.780162
6.420000 0.184964 0.788599
6.420000 0.151779 0.795653
6.420000 0.118327 0.801311
6.420000 0.084668 0.805563
6.420000 0.050860 0.808402
6.420000 0.016963 0.809822
6.420000 -0.016963 0.809822
6.420000 -0.050860 0.808402
6.420000 -0.084668 0.805563
6.420000 -0.118327 0.801311
6.420000 -0.151779 0.795653
6.420000 -0.184964 0.788599
6.420000 -0.217825 0.780162
6.420000 -0.250304 0.770356
6.420000 -0.282343 0.759198
6.420000 -0.313888 0.746709
6.420000 -0.344881 0.732910
6.420000 -0.375270 0.717825
6.420000 -0.405000 0.701481
6.420000 -0.434020 0.683906
6.420000 -0.462278 0.665131
6.420000 -0.489725 0.645189
6.420000 -0.516313 0.624116
6.420000 -0.541996 0.601947
6.420000 -0.566727 0.578723
6.420000 -0.590465 0.554483
6.420000 -0.613166 0.529271
6.420000 -0.634792 0.503130
6.420000 -0.655304 0.476106
6.420000 -0.674666 0.448247
6.420000 -0.692845 0.419602
6.420000 -0.709808 0.390220
6.420000 -0.725527 0.360154
6.420000 -0.739972 0.329457
6.420000 -0.753119 0.298181
6.420000 -0.764945 0.266382
6.420000 -0.775429 0.234116
6.420000 -0.784552 0.201439
6.420000 -0.792300 0.168408
6.420000 -0.798657 0.135083
6.420000 -0.803613 0.101520
6.420000 -0.807159 0.067779
6.420000 -0.809289 0.033919
6.420000 -0.810000 0.000000
6.420000 -0.809289 -0.033919
6.420000 -0.807159 -0.067779
6.420000 -0.803613 -0.101520
6.420000 -0.798657 -0.135083
6.420000 -0.792300 -0.168408
6.420000 -0.784552 -0.201439
6.420000 -0.775429 -0.234116
6.420000 -0.764945 -0.266382
6.420000 -0.753119 -0.298181
6.420000 -0.739972 -0.329457
6.420000 -0.725527 -0.360154
6.420000 -0.709808 -0.390220
6.420000 -0.692845 -0.419602
6.420000 -0.674666 -0.448247
6.420000 -0.655304 -0.476106
6.420000 -0.634792 -0.503130
6.420000 -0.613166 -0.529271
6.420000 -0.590465 -0.554483
6.420000 -0.566727 -0.578723
6.420000 -0.541996 -0.601947
6.420000 -0.516313 -0.624116
6.420000 -0.489725 -0.645189
6.420000 -0.462278 -0.665131
6.420000 -0.434020 -0.683906
6.420000 -0.405000 -0.701481
6.420000 -0.375270 -0.717825
6.420000 -0.344881 -0.732910
6.420000 -0.313888 -0.746709
6.420000 -0.282343 -0.759198
6.420000 -0.250304 -0.770356
6.420000 -0.217825 -0.780162
6.420000 -0.184964 -0.788599
6.420000 -0.151779 -0.795653
6.420000 -0.118327 -0.801311
6.420000 -0.084668 -0.805563
6.420000 -0.050860 -0.808402
6.420000 -0.016963 -0.809822
6.420000 0.016963 -0.809822
6.420000 0.050860 -0.808402
6.420000 0.084668 -0.805563
6.420000 0.118327 -0.801311
6.420000 0.151779 -0.795653
6.420000 0.184964 -0.788599
6.420000 0.217825 -0.780162
6.420000 0.250304 -0.770356
6.420000 0.282343 -0.759198
6.420000 0.313888 -0.746709
6.420000 0.344881 -0.732910
6.420000 0.375270 -0.717825
6.420000 0.405000 -0.701481
6.420000 0.434020 -0.683906
6.420000 0.462278 -0.665131
6.420000 0.489725 -0.645189
6.420000 0.516313 -0.624116
6.420000 0.541996 -0.601947
6.420000 0.566727 -0.578723
6.420000 0.590465 -0.554483
6.420000 0.613166 -0.529271
6.420000 0.634792 -0.503130
6.420000 0.655304 -0.476106
6.420000 0.674666 -0.448247
6.420000 0.692845 -0.419602
6.420000 0.709808 -0.390220
6.420000 0.725527 -0.360154
6.420000 0.739972 -0.329457
6.420000 0.753119 -0.298181
6.420000 0.764945 -0.266382
6.420000 0.775429 -0.234116
6.420000 0.784552 -0.201439
6.420000 0.792300 -0.168408
6.420000 0.798657 -0.135083
6.420000 0.803613 -0.101520
6.420000 0.807159 -0.067779
6.420000 0.809289 -0.033919
7.150000 0.690000 0.000000
7.150000 0.689395 0.028894
7.150000 0.687580 0.057738
7.150000 0.684559 0.086480
7.150000 0.680337 0.115070
7.150000 0.674922 0.143459
7.150000 0.668322 0.171596
7.150000 0.660550 0.199432
7.150000 0.651620 0.226918
7.150000 0.641546 0.254006
7.150000 0.630346 0.280648
7.150000 0.618041 0.306798
7.150000 0.604652 0.332410
7.150000 0.590201 0.357439
7.150000 0.574716 0.381840
7.150000 0.558222 0.405572
7.150000 0.540748 0.428592
7.150000 0.522327 0.450860
7.150000 0.502988 0.472338
7.150000 0.482768 0.492986
7.150000 0.461700 0.512770
7.150000 0.439823 0.531654
7.150000 0.417173 0.549606
7.150000 0.393792 0.566593
7.150000 0.369720 0.582586
7.150000 0.345000 0.597558
7.150000 0.319674 0.611480
7.150000 0.293788 0.624331
7.150000 0.267386 0.636086
7.150000 0.240515 0.646725
7.150000 0.213222 0.656229
7.150000 0.185555 0.664582
7.150000 0.157562 0.671769
7.150000 0.129293 0.677778
7.150000 0.100797 0.682598
7.150000 0.072125 0.686220
7.150000 0.043325 0.688638
7.150000 0.014450 0.689849
7.150000 -0.014450 0.689849
7.150000 -0.043325 0.688638
7.150000 -0.072125 0.686220
7.150000 -0.100797 0.682598
7.150000 -0.129293 0.677778
7.150000 -0.157562 0.671769
7.150000 -0.185555 0.664582
7.150000 -0.213222 0.656229
7.150000 -0.240515 0.646725
7.150000 -0.267386 0.636086
7.150000 -0.293788 0.624331
7.150000 -0.319674 0.611480
7.150000 -0.345000 0.597558
7.150000 -0.369720 0.582586
7.150000 -0.393792 0.566593
7.150000 -0.417173 0.549606
7.150000 -0.439823 0.531654
7.150000 -0.461700 0.512770
7.150000 -0.482768 0.492986
7.150000 -0.502988 0.472338
7.150000 -0.522327 0.450860
7.150000 -0.540748 0.428592
7.150000 -0.558222 0.405572
7.150000 -0.574716 0.381840
7.150000 -0.590201 0.357439
7.150000 -0.604652 0.332410
7.150000 -0.618041 0.306798
7.150000 -0.630346 0.280648
7.150000 -0.641546 0.254006
7.150000 -0.651620 0.226918
7.150000 -0.660550 0.199432
7.150000 -0.668322 0.171596
7.150000 -0.674922 0.143459
7.150000 -0.680337 0.115070
7.150000 -0.684559 0.086480
7.150000 -0.687580 0.057738
7.150000 -0.689395 0.028894
7.150000 -0.690000 0.000000
7.150000 -0.689395 -0.028894
7.150000 -0.687580 -0.057738
7.150000 -0.684559 -0.086480
7.150000 -0.680337 -0.115070
7.150000 -0.674922 -0.143459
7.150000 -0.668322 -0.171596
7.150000 -0.660550 -0.199432
7.150000 -0.651620 -0.226918
7.150000 -0.641546 -0.254006
7.150000 -0.630346 -0.280648
7.150000 -0.618041 -0.306798
7.150000 -0.604652 -0.332410
7.150000 -0.590201 -0.357439
7.150000 -0.574716 -0.381840
7.150000 -0.558222 -0.405572
7.150000 -0.540748 -0.428592
7.150000 -0.522327 -0.450860
7.150000 -0.502988 -0.472338
7.150000 -0.482768 -0.492986
7.150000 -0.461700 -0.512770
7.150000 -0.439823 -0.531654
7.150000 -0.417173 -0.549606
7.150000 -0.393792 -0.566593
7.150000 -0.369720 -0.582586
7.150000 -0.345000 -0.597558
7.150000 -0.319674 -0.611480
7.150000 -0.293788 -0.624331
7.150000 -0.267386 -0.636086
7.150000 -0.240515 -0.646725
7.150000 -0.213222 -0.656229
7.150000 -0.185555 -0.664582
7.150000 -0.157562 -0.671769
7.150000 -0.129293 -0.677778
7.150000 -0.100797 -0.682598
7.150000 -0.072125 -0.686220
7.150000 -0.043325 -0.688638
7.150000 -0.014450 -0.689849
7.150000 0.014450 -0.689849
7.150000 0.043325 -0.688638
7.150000 0.072125 -0.686220
7.150000 0.100797 -0.682598
7.150000 0.129293 -0.677778
7.150000 0.157562 -0.671769
7.150000 0.185555 -0.664582
7.150000 0.213222 -0.656229
7.150000 0.240515 -0.646725
7.150000 0.267386 -0.636086
7.150000 0.293788 -0.624331
7.150000 0.319674 -0.611480
7.150000 0.345000 -0.597558
7.150000 0.369720 -0.582586
7.150000 0.393792 -0.566593
7.150000 0.417173 -0.549606
7.150000 0.439823 -0.531654
7.150000 0.461700 -0.512770
7.150000 0.482768 -0.492986
7.150000 0.502988 -0.472338
7.150000 0.522327 -0.450860
7.150000 0.540748 -0.428592
7.150000 0.558222 -0.405572
7.150000 0.574716 -0.381840
7.150000 0.590201 -0.357439
7.150000 0.604652 -0.332410
7.150000 0.618041 -0.306798
7.150000 0.630346 -0.280648
7.150000 0.641546 -0.254006
7.150000 0.651620 -0.226918
7.150000 0.660550 -0.199432
7.150000 0.668322 -0.171596
7.150000 0.674922 -0.143459
7.150000 0.680337 -0.115070
7.150000 0.684559 -0.086480
7.150000 0.687580 -0.057738
7.150000 0.689395 -0.028894
7.910000 0.700000 0.000000
7.910000 0.699386 0.029313
7.910000 0.697545 0.058574
7.910000 0.694480 0.087733
7.910000 0.690197 0.116738
7.910000 0.684703 0.145538
7.910000 0.678008 0.174083
7.910000 0.670124 0.202322
7.910000 0.661063 0.230207
7.910000 0.650844 0.257687
7.910000 0.639482 0.284716
7.910000 0.626998 0.311245
7.910000 0.613415 0.337228
7.910000 0.598755 0.362619
7.910000 0.583045 0.387374
7.910000 0.566312 0.411450
7.910000 0.548585 0.434803
7.910000 0.529897 0.457394
7.910000 0.510278 0.479183
7.910000 0.489764 0.500131
7.910000 0.468391 0.520201
7.910000 0.446197 0.539359
7.910000 0.423219 0.557571
7.910000 0.399499 0.574804
7.910000 0.375079 0.591030
7.910000 0.350000 0.606218
7.910000 0.324307 0.620343
7.910000 0.298046 0.633379
7.910000 0.271261 0.645304
7.910000 0.244000 0.656097
7.910000 0.216312 0.665740
7.910000 0.188244 0.674214
7.910000 0.159846 0.681505
7.910000 0.131167 0.687601
7.910000 0.102258 0.692491
7.910000 0.073170 0.696165
7.910000 0.043953 0.698619
7.910000 0.014660 0.699846
7.910000 -0.014660 0.699846
7.910000 -0.043953 0.698619
7.910000 -0.073170 0.696165
7.910000 -0.102258 0.692491
7.910000 -0.131167 0.687601
7.910000 -0.159846 0.681505
7.910000 -0.188244 0.674214
7.910000 -0.216312 0.665740
7.910000 -0.244000 0.656097
7.910000 -0.271261 0.645304
7.910000 -0.298046 0.633379
7.910000 -0.324307 0.620343
7.910000 -0.350000 0.606218
7.910000 -0.375079 0.591030
7.910000 -0.399499 0.574804
7.910000 -0.423219 0.557571
7.910000 -0.446197 0.539359
7.910000 -0.468391 0.520201
7.910000 -0.489764 0.500131
7.910000 -0.510278 0.479183
7.910000 -0.529897 0.457394
7.910000 -0.548585 0.434803
7.910000 -0.566312 0.411450
7.910000 -0.583045 0.387374
7.910000 -0.598755 0.362619
7.910000 -0.613415 0.337228
7.910000 -0.626998 0.311245
7.910000 -0.639482 0.284716
7.910000 -0.650844 0.257687
7.910000 -0.661063 0.230207
7.910000 -0.670124 0.202322
7.910000 -0.678008 0.174083
7.910000 -0.684703 0.145538
7.910000 -0.690197 0.116738
7.910000 -0.694480 0.087733
7.910000 -0.697545 0.058574
7.910000 -0.699386 0.029313
7.910000 -0.700000 0.000000
7.910000 -0.699386 -0.029313
7.910000 -0.697545 -0.058574
7.910000 -0.694480 -0.087733
7.910000 -0.690197 -0.116738
7.910000 -0.684703 -0.145538
7.910000 -0.678008 -0.174083
7.910000 -0.670124 -0.202322
7.910000 -0.661063 -0.230207
7.910000 -0.650844 -0.257687
7.910000 -0.639482 -0.284716
7.910000 -0.626998 -0.311245
7.910000 -0.613415 -0.337228
7.910000 -0.598755 -0.362619
7.910000 -0.583045 -0.387374
7.910000 -0.566312 -0.411450
7.910000 -0.548585 -0.434803
7.910000 -0.529897 -0.457394
7.910000 -0.510278 -0.479183
7.910000 -0.489764 -0.500131
7.910000 -0.468391 -0.520201
7.910000 -0.446197 -0.539359
7.910000 -0.423219 -0.557571
7.910000 -0.399499 -0.574804
7.910000 -0.375079 -0.591030
7.910000 -0.350000 -0.606218
7.910000 -0.324307 -0.620343
7.910000 -0.298046 -0.633379
7.910000 -0.271261 -0.645304
7.910000 -0.244000 -0.656097
7.910000 -0.216312 -0.665740
7.910000 -0.188244 -0.674214
7.910000 -0.159846 -0.681505
7.910000 -0.131167 -0.687601
7.910000 -0.102258 -0.692491
7.910000 -0.073170 -0.696165
7.910000 -0.043953 -0.698619
7.910000 -0.014660 -0.699846
7.910000 0.014660 -0.699846
7.910000 0.043953 -0.698619
7.910000 0.073170 -0.696165
7.910000 0.102258 -0.692491
7.910000 0.131167 -0.687601
7.910000 0.159846 -0.681505
7.910000 0.188244 -0.674214
7.910000 0.216312 -0.665740
7.910000 0.244000 -0.656097
7.910000 0.271261 -0.645304
7.910000 0.298046 -0.633379
7.910000 0.324307 -0.620343
7.910000 0.350000 -0.606218
7.910000 0.375079 -0.591030
7.910000 0.399499 -0.574804
7.910000 0.423219 -0.557571
7.910000 0.446197 -0.539359
7.910000 0.468391 -0.520201
7.910000 0.489764 -0.500131
7.910000 0.510278 -0.479183
7.910000 0.529897 -0.457394
7.910000 0.548585 -0.434803
7.910000 0.566312 -0.411450
7.910000 0.583045 -0.387374
7.910000 0.598755 -0.362619
7.910000 0.613415 -0.337228
7.910000 0.626998 -0.311245
7.910000 0.639482 -0.284716
7.910000 0.650844 -0.257687
7.910000 0.661063 -0.230207
7.910000 0.670124 -0.202322
7.910000 0.678008 -0.174083
7.910000 0.684703 -0.145538
7.910000 0.690197 -0.116738
7.910000 0.694480 -0.087733
7.910000 0.697545 -0.058574
7.910000 0.699386 -0.029313
8.400000 1.030000 0.000000
8.400000 1.029097 0.043132
8.400000 1.026388 0.086188
8.400000 1.021878 0.129093
8.400000 1.015576 0.171772
8.400000 1.007492 0.214149
8.400000 0.997641 0.256151
8.400000 0.986039 0.297703
8.400000 0.972708 0.338733
8.400000 0.957670 0.379168
8.400000 0.940952 0.418939
8.400000 0.922583 0.457974
8.400000 0.902596 0.496206
8.400000 0.881025 0.533568
8.400000 0.857909 0.569993
8.400000 0.833288 0.605419
8.400000 0.807204 0.639782
8.400000 0.779705 0.673023
8.400000 0.750838 0.705084
8.400000 0.720653 0.735907
8.400000 0.689205 0.765439
8.400000 0.656547 0.793629
8.400000 0.622737 0.820426
8.400000 0.587835 0.845784
8.400000 0.551902 0.869658
8.400000 0.515000 0.892006
8.400000 0.477195 0.912790
8.400000 0.438553 0.931972
8.400000 0.399141 0.949519
8.400000 0.359029 0.965400
8.400000 0.318288 0.979588
8.400000 0.276987 0.992057
8.400000 0.235201 1.002786
8.400000 0.193003 1.011756
8.400000 0.150466 1.018951
8.400000 0.107664 1.024358
8.400000 0.064674 1.027968
8.400000 0.021571 1.029774
8.400000 -0.021571 1.029774
8.400000 -0.064674 1.027968
8.400000 -0.107664 1.024358
8.400000 -0.150466 1.018951
8.400000 -0.193003 1.011756
8.400000 -0.235201 1.002786
8.400000 -0.276987 0.992057
8.400000 -0.318288 0.979588
8.400000 -0.359029 0.965400
8.400000 -0.399141 0.949519
8.400000 -0.438553 0.931972
8.400000 -0.477195 0.912790
8.400000 -0.515000 0.892006
8.400000 -0.551902 0.869658
8.400000 -0.587835 0.845784
8.400000 -0.622737 0.820426
8.400000 -0.656547 0.793629
8.400000 -0.689205 0.765439
8.400000 -0.720653 0.735907
8.400000 -0.750838 0.705084
8.400000 -0.779705 0.673023
8.400000 -0.807204 0.639782
8.400000 -0.833288 0.605419
8.400000 -0.857909 0.569993
8.400000 -0.881025 0.533568
8.400000 -0.902596 0.496206
8.400000 -0.922583 0.457974
8.400000 -0.940952 0.418939
8.400000 -0.957670 0.379168
8.400000 -0.972708 0.338733
8.400000 -0.986039 0.297703
8.400000 -0.997641 0.256151
8.400000 -1.007492 0.214149
8.400000 -1.015576 0.171772
8.400000 -1.021878 0.129093
8.400000 -1.026388 0.086188
8.400000 -1.029097 0.043132
8.400000 -1.030000 0.000000
8.400000 -1.029097 -0.043132
8.400000 -1.026388 -0.086188
8.400000 -1.021878 -0.129093
8.400000 -1.015576 -0.171772
8.400000 -1.007492 -0.214149
8.400000 -0.997641 -0.256151
8.400000 -0.986039 -0.297703
8.400000 -0.972708 -0.338733
8.400000 -0.957670 -0.379168
8.400000 -0.940952 -0.418939
8.400000 -0.922583 -0.457974
8.400000 -0.902596 -0.496206
8.400000 -0.881025 -0.533568
8.400000 -0.857909 -0.569993
8.400000 -0.833288 -0.605419
8.400000 -0.807204 -0.639782
8.400000 -0.779705 -0.673023
8.400000 -0.750838 -0.705084
8.400000 -0.720653 -0.735907
8.400000 -0.689205 -0.765439
8.400000 -0.656547 -0.793629
8.400000 -0.622737 -0.820426
8.400000 -0.587835 -0.845784
8.400000 -0.551902 -0.869658
8.400000 -0.515000 -0.892006
8.400000 -0.477195 -0.912790
8.400000 -0.438553 -0.931972
8.400000 -0.399141 -0.949519
8.400000 -0.359029 -0.965400
8.400000 -0.318288 -0.979588
8.400000 -0.276987 -0.992057
8.400000 -0.235201 -1.002786
8.400000 -0.193003 -1.011756
8.400000 -0.150466 -1.018951
8.400000 -0.107664 -1.024358
8.400000 -0.064674 -1.027968
8.400000 -0.021571 -1.029774
8.400000 0.021571 -1.029774
8.400000 0.064674 -1.027968
8.400000 0.107664 -1.024358
8.400000 0.150466 -1.018951
8.400000 0.193003 -1.011756
8.400000 0.235201 -1.002786
8.400000 0.276987 -0.992057
8.400000 0.318288 -0.979588
8.400000 0.359029 -0.965400
8.400000 0.399141 -0.949519
8.400000 0.438553 -0.931972
8.400000 0.477195 -0.912790
8.400000 0.515000 -0.892006
8.400000 0.551902 -0.869658
8.400000 0.587835 -0.845784
8.400000 0.622737 -0.820426
8.400000 0.656547 -0.793629
8.400000 0.689205 -0.765439
8.400000 0.720653 -0.735907
8.400000 0.750838 -0.705084
8.400000 0.779705 -0.673023
8.400000 0.807204 -0.639782
8.400000 0.833288 -0.605419
8.400000 0.857909 -0.569993
8.400000 0.881025 -0.533568
8.400000 0.902596 -0.496206
8.400000 0.922583 -0.457974
8.400000 0.940952 -0.418939
8.400000 0.957670 -0.379168
8.400000 0.972708 -0.338733
8.400000 0.986039 -0.297703
8.400000 0.997641 -0.256151
8.400000 1.007492 -0.214149
8.400000 1.015576 -0.171772
8.400000 1.021878 -0.129093
8.400000 1.026388 -0.086188
8.400000 1.029097 -0.043132
8.680000 1.590000 0.000000
8.680000 1.588605 0.066582
8.680000 1.584424 0.133048
8.680000 1.577462 0.199280
8.680000 1.567734 0.265162
8.680000 1.555255 0.330580
8.680000 1.540047 0.395417
8.680000 1.522138 0.459561
8.680000 1.501558 0.522898
8.680000 1.478345 0.585318
8.680000 1.452537 0.646711
8.680000 1.424182 0.706970
8.680000 1.393328 0.765988
8.680000 1.360029 0.823663
8.680000 1.324345 0.879893
8.680000 1.286337 0.934579
8.680000 1.246073 0.987625
8.680000 1.203622 1.038939
8.680000 1.159060 1.088430
8.680000 1.112465 1.136012
8.680000 1.063918 1.181600
8.680000 1.013504 1.225116
8.680000 0.961313 1.266483
8.680000 0.907435 1.305627
8.680000 0.851965 1.342481
8.680000 0.795000 1.376980
8.680000 0.736641 1.409064
8.680000 0.676989 1.438675
8.680000 0.616150 1.465762
8.680000 0.554230 1.490278
8.680000 0.491337 1.512180
8.680000 0.427583 1.531428
8.680000 0.363078 1.547990
8.680000 0.297936 1.561837
8.680000 0.232272 1.572943
8.680000 0.166200 1.581290
8.680000 0.099837 1.586862
8.680000 0.033298 1.589651
8.680000 -0.033298 1.589651
8.680000 -0.099837 1.586862
8.680000 -0.166200 1.581290
8.680000 -0.232272 1.572943
8.680000 -0.297936 1.561837
8.680000 -0.363078 1.547990
8.680000 -0.427583 1.531428
8.680000 -0.491337 1.512180
8.680000 -0.554230 1.490278
8.680000 -0.616150 1.465762
8.680000 -0.676989 1.438675
8.680000 -0.736641 1.409064
8.680000 -0.795000 1.376980
8.680000 -0.851965 1.342481
8.680000 -0.907435 1.305627
8.680000 -0.961313 1.266483
8.680000 -1.013504 1.225116
8.680000 -1.063918 1.181600
8.680000 -1.112465 1.136012
8.680000 -1.159060 1.088430
8.680000 -1.203622 1.038939
8.680000 -1.246073 0.987625
8.680000 -1.286337 0.934579
8.680000 -1.324345 0.879893
8.680000 -1.360029 0.823663
8.680000 -1.393328 0.765988
8.680000 -1.424182 0.706970
8.680000 -1.452537 0.646711
8.680000 -1.478345 0.585318
8.680000 -1.501558 0.522898
8.680000 -1.522138 0.459561
8.680000 -1.540047 0.395417
8.680000 -1.555255 0.330580
8.680000 -1.567734 0.265162
8.680000 -1.577462 0.199280
8.680000 -1.584424 0.133048
8.680000 -1.588605 0.066582
8.680000 -1.590000 0.000000
8.680000 -1.588605 -0.066582
8.680000 -1.584424 -0.133048
8.680000 -1.577462 -0.199280
8.680000 -1.567734 -0.265162
8.680000 -1.555255 -0.330580
8.680000 -1.540047 -0.395417
8.680000 -1.522138 -0.459561
8.680000 -1.501558 -0.522898
8.680000 -1.478345 -0.585318
8.680000 -1.452537 -0.646711
8.680000 -1.424182 -0.706970
8.680000 -1.393328 -0.765988
8.680000 -1.360029 -0.823663
8.680000 -1.324345 -0.879893
8.680000 -1.286337 -0.934579
8.680000 -1.246073 -0.987625
8.680000 -1.203622 -1.038939
8.680000 -1.159060 -1.088430
8.680000 -1.112465 -1.136012
8.680000 -1.063918 -1.181600
8.680000 -1.013504 -1.225116
8.680000 -0.961313 -1.266483
8.680000 -0.907435 -1.305627
8.680000 -0.851965 -1.342481
8.680000 -0.795000 -1.376980
8.680000 -0.736641 -1.409064
8.680000 -0.676989 -1.438675
8.680000 -0.616150 -1.465762
8.680000 -0.554230 -1.490278
8.680000 -0.491337 -1.512180
8.680000 -0.427583 -1.531428
8.680000 -0.363078 -1.547990
8.680000 -0.297936 -1.561837
8.680000 -0.232272 -1.572943
8.680000 -0.166200 -1.581290
8.680000 -0.099837 -1.586862
8.680000 -0.033298 -1.589651
8.680000 0.033298 -1.589651
8.680000 0.099837 -1.586862
8.680000 0.166200 -1.581290
8.680000 0.232272 -1.572943
8.680000 0.297936 -1.561837
8.680000 0.363078 -1.547990
8.680000 0.427583 -1.531428
8.680000 0.491337 -1.512180
8.680000 0.554230 -1.490278
8.680000 0.616150 -1.465762
8.680000 0.676989 -1.438675
8.680000 0.736641 -1.409064
8.680000 0.795000 -1.376980
8.680000 0.851965 -1.342481
8.680000 0.907435 -1.305627
8.680000 0.961313 -1.266483
8.680000 1.013504 -1.225116
8.680000 1.063918 -1.181600
8.680000 1.112465 -1.136012
8.680000 1.159060 -1.088430
8.680000 1.203622 -1.038939
8.680000 1.246073 -0.987625
8.680000 1.286337 -0.934579
8.680000 1.324345 -0.879893
8.680000 1.360029 -0.823663
8.680000 1.393328 -0.765988
8.680000 1.424182 -0.706970
8.680000 1.452537 -0.646711
8.680000 1.478345 -0.585318
8.680000 1.501558 -0.522898
8.680000 1.522138 -0.459561
8.680000 1.540047 -0.395417
8.680000 1.555255 -0.330580
8.680000 1.567734 -0.265162
8.680000 1.577462 -0.199280
8.680000 1.584424 -0.133048
8.680000 1.588605 -0.066582
8.840000 2.310000 0.000000
8.840000 2.307974 0.096733
8.840000 2.301899 0.193296
8.840000 2.291785 0.289520
8.840000 2.277651 0.385236
8.840000 2.259521 0.480276
8.840000 2.237427 0.574474
8.840000 2.211408 0.667663
8.840000 2.181509 0.759682
8.840000 2.147784 0.850368
8.840000 2.110290 0.939562
8.840000 2.069094 1.027107
8.840000 2.024268 1.112851
8.840000 1.975891 1.196642
8.840000 1.924048 1.278334
8.840000 1.868829 1.357784
8.840000 1.810332 1.434851
8.840000 1.748659 1.509402
8.840000 1.683918 1.581304
8.840000 1.616222 1.650432
8.840000 1.545692 1.716665
8.840000 1.472449 1.779886
8.840000 1.396624 1.839984
8.840000 1.318348 1.896855
8.840000 1.237760 1.950398
8.840000 1.155000 2.000519
8.840000 1.070214 2.047130
8.840000 0.983550 2.090150
8.840000 0.895161 2.129504
8.840000 0.805201 2.165121
8.840000 0.713829 2.196941
8.840000 0.621205 2.224906
8.840000 0.527491 2.248967
8.840000 0.432851 2.269084
8.840000 0.337452 2.285219
8.840000 0.241461 2.297346
8.840000 0.145046 2.305442
8.840000 0.048377 2.309493
8.840000 -0.048377 2.309493
8.840000 -0.145046 2.305442
8.840000 -0.241461 2.297346
8.840000 -0.337452 2.285219
8.840000 -0.432851 2.269084
8.840000 -0.527491 2.248967
8.840000 -0.621205 2.224906
8.840000 -0.713829 2.196941
8.840000 -0.805201 2.165121
8.840000 -0.895161 2.129504
8.840000 -0.983550 2.090150
8.840000 -1.070214 2.047130
8.840000 -1.155000 2.000519
8.840000 -1.237760 1.950398
8.840000 -1.318348 1.896855
8.840000 -1.396624 1.839984
8.840000 -1.472449 1.779886
8.840000 -1.545692 1.716665
8.840000 -1.616222 1.650432
8.840000 -1.683918 1.581304
8.840000 -1.748659 1.509402
8.840000 -1.810332 1.434851
8.840000 -1.868829 1.357784
8.840000 -1.924048 1.278334
8.840000 -1.975891 1.196642
8.840000 -2.024268 1.112851
8.840000 -2.069094 1.027107
8.840000 -2.110290 0.939562
8.840000 -2.147784 0.850368
8.840000 -2.181509 0.759682
8.840000 -2.211408 0.667663
8.840000 -2.237427 0.574474
8.840000 -2.259521 0.480276
8.840000 -2.277651 0.385236
8.840000 -2.291785 0.289520
8.840000 -2.301899 0.193296
8.840000 -2.307974 0.096733
8.840000 -2.310000 0.000000
8.840000 -2.307974 -0.096733
8.840000 -2.301899 -0.193296
8.840000 -2.291785 -0.289520
8.840000 -2.277651 -0.385236
8.840000 -2.259521 -0.480276
8.840000 -2.237427 -0.574474
8.840000 -2.211408 -0.667663
8.840000 -2.181509 -0.759682
8.840000 -2.147784 -0.850368
8.840000 -2.110290 -0.939562
8.840000 -2.069094 -1.027107
8.840000 -2.024268 -1.112851
8.840000 -1.975891 -1.196642
8.840000 -1.924048 -1.278334
8.840000 -1.868829 -1.357784
8.840000 -1.810332 -1.434851
8.840000 -1.748659 -1.509402
8.840000 -1.683918 -1.581304
8.840000 -1.616222 -1.650432
8.840000 -1.545692 -1.716665
8.840000 -1.472449 -1.779886
8.840000 -1.396624 -1.839984
8.840000 -1.318348 -1.896855
8.840000 -1.237760 -1.950398
8.840000 -1.155000 -2.000519
8.840000 -1.070214 -2.047130
8.840000 -0.983550 -2.090150
8.840000 -0.895161 -2.129504
8.840000 -0.805201 -2.165121
8.840000 -0.713829 -2.196941
8.840000 -0.621205 -2.224906
8.840000 -0.527491 -2.248967
8.840000 -0.432851 -2.269084
8.840000 -0.337452 -2.285219
8.840000 -0.241461 -2.297346
8.840000 -0.145046 -2.305442
8.840000 -0.048377 -2.309493
8.840000 0.048377 -2.309493
8.840000 0.145046 -2.305442
8.840000 0.241461 -2.297346
8.840000 0.337452 -2.285219
8.840000 0.432851 -2.269084
8.840000 0.527491 -2.248967
8.840000 0.621205 -2.224906
8.840000 0.713829 -2.196941
8.840000 0.805201 -2.165121
8.840000 0.895161 -2.129504
8.840000 0.983550 -2.090150
8.840000 1.070214 -2.047130
8.840000 1.155000 -2.000519
8.840000 1.237760 -1.950398
8.840000 1.318348 -1.896855
8.840000 1.396624 -1.839984
8.840000 1.472449 -1.779886
8.840000 1.545692 -1.716665
8.840000 1.616222 -1.650432
8.840000 1.683918 -1.581304
8.840000 1.748659 -1.509402
8.840000 1.810332 -1.434851
8.840000 1.868829 -1.357784
8.840000 1.924048 -1.278334
8.840000 1.975891 -1.196642
8.840000 2.024268 -1.112851
8.840000 2.069094 -1.027107
8.840000 2.110290 -0.939562
8.840000 2.147784 -0.850368
8.840000 2.181509 -0.759682
8.840000 2.211408 -0.667663
8.840000 2.237427 -0.574474
8.840000 2.259521 -0.480276
8.840000 2.277651 -0.385236
8.840000 2.291785 -0.289520
8.840000 2.301899 -0.193296
8.840000 2.307974 -0.096733
8.970000 3.330000 0.000000
8.970000 3.327079 0.139446
8.970000 3.318321 0.278647
8.970000 3.303742 0.417360
